# .PCD v0.7 - Point Cloud Data file format
VERSION 0.7
FIELDS x y z
SIZE 4 4 4
TYPE F F F
COUNT 1 1 1
WIDTH 207
HEIGHT 1
VIEWPOINT 0 0 0 1 0 0 0
POINTS 207
DATA ascii
0.24545503 -0.61504823 1.609
0.24610205 -0.57805365 1.632
0.2718569 -0.57805365 1.632
0.51747674 -0.38745749 1.483
0.46138874 -0.36601788 1.47
0.46138874 -0.36601788 1.47
0.80971944 -0.39216378 1.609
0.55950904 -0.29595652 1.232
0.11875855 -0.28641766 1.3279999
0.86313868 -0.34117305 1.663
0.13295458 -0.25878659 1.354
-0.052672278 -0.043377168 0.58899999
0.18450816 -0.056154657 0.91500002
0.18030861 -0.052656498 0.91000003
0.18828687 -0.052656498 0.91000003
-0.32304052 -0.030247238 0.69
0.19178502 -0.036822725 0.875
-0.028074697 -0.023915483 0.59299999
-0.028074697 -0.023915483 0.59299999
-0.054343328 -0.022991408 0.59600002
-0.030205155 -0.021872699 0.59399998
-0.030205155 -0.021872699 0.59399998
-0.023107136 -0.016805191 0.59899998
-0.24399088 -0.014185516 0.80900002
0.15912677 0.0078905839 0.75
0.16437665 0.010436612 0.74400002
0.32328248 0.04568122 0.66799998
0.31156233 0.051152024 0.66299999
-0.053527966 0.050250746 0.62300003
0.27072418 0.057769597 0.64600003
0.35846922 0.068048395 0.69300002
0.18110467 0.069900051 0.60399997
-0.14238121 0.074241631 0.57999998
0.66667545 0.24100474 1.785
0.18350342 0.093361385 0.61199999
0.061309837 0.085639134 0.55500001
0.063142203 0.087427668 0.55400002
0.055071015 0.088886552 0.551
0.11673856 0.1003542 0.58399999
-0.00184815 0.097951956 0.52700001
-0.092603892 0.11146765 0.48899999
-0.18821321 0.1265299 0.45100001
-0.12475539 0.13833421 0.484
-0.11784324 0.13919166 0.48699999
-0.12331229 0.14032088 0.48500001
-0.13550763 0.1405576 0.47999999
0.25343853 -0.60939157 1.624
0.25913379 -0.60084867 1.624
0.25913379 -0.60084867 1.624
0.25343853 -0.58945817 1.624
0.25754866 -0.58377695 1.632
0.25754866 -0.56088376 1.632
0.25182536 -0.55229878 1.632
0.25702789 -0.54582328 1.647
0.45165879 -0.37848499 1.439
0.33727512 -0.35943189 1.404
0.33727512 -0.35943189 1.404
0.31867439 -0.35054183 1.398
0.83024371 -0.39386991 1.6160001
0.55938977 -0.26678589 1.227
0.071045063 -0.27042961 1.307
0.84075397 -0.31598806 1.609
0.72295284 -0.28537613 1.55
0.72509909 -0.27597055 1.543
0.57942134 -0.14802736 1.206
0.17328423 -0.13390146 1.123
0.31002629 -0.12674031 1.112
-0.29932317 -0.1003051 0.90799999
0.14924777 -0.10010521 1.038
0.34227949 -0.093186043 1.022
0.16821498 -0.086708747 0.98900002
-0.061451867 -0.039579168 0.59399998
-0.013813782 -0.037190951 0.60600001
0.07759425 -0.034320533 0.85100001
-0.034313519 -0.021835877 0.59299999
-0.02931089 -0.014655445 0.597
-0.27389094 -0.0068472736 0.78100002
0.14277925 0.0053375415 0.76099998
0.14959671 0.0079431878 0.755
-0.023492899 0.008542872 0.60900003
0.15518148 0.0092056813 0.75
0.33425215 0.015486586 0.736
0.19109942 0.022630194 0.71700001
0.19109942 0.022630194 0.71700001
0.20483956 0.027311942 0.708
0.29087499 0.030554093 0.69700003
0.25923198 0.058355253 0.63999999
0.086191475 0.084210068 0.565
0.16682799 0.096696474 0.60600001
0.12621427 0.10241978 0.58999997
0.093603365 0.10366824 0.574
-0.10200596 0.13744871 0.493
-0.097948447 -0.56449234 1.47
-0.35569173 -0.23233737 0.68300003
-0.35569173 -0.23233737 0.68300003
-0.31971943 -0.21355778 0.704
-0.31971943 -0.21355778 0.704
0.23549184 -0.45246187 1.5089999
-0.23808347 -0.31411013 1.141
-0.27440295 -0.31019464 1.1339999
0.075628616 -0.29105559 1.307
0.30773276 -0.29788533 1.404
-0.31036296 -0.14276697 0.708
-0.31036296 -0.14276697 0.708
0.18281256 -0.27303174 1.354
0.10155006 -0.18543924 1.2589999
-0.1046081 -0.13890584 0.97799999
0.16693319 -0.14250395 1.161
0.42336491 -0.13587059 1.123
0.55565143 -0.12628441 1.108
0.15051727 -0.11853235 1.073
-0.023996143 -0.061555322 0.59500003
0.15465544 -0.10862704 1.05
-0.06270384 -0.059568647 0.59600002
0.30769771 -0.10506751 1.0700001
-0.02287568 -0.0571892 0.59299999
-0.021835877 -0.051990181 0.59299999
0.15715063 -0.086521126 1.007
-0.29504821 -0.049587935 0.70700002
0.46943715 -0.064632647 0.97000003
0.4364019 -0.057759073 0.91500002
-0.018905839 -0.031509731 0.59899998
0.044345081 -0.039910574 0.84299999
0.20056111 -0.033175521 0.86000001
0.21419778 -0.024771173 0.83099997
-0.019063652 -0.015886376 0.60399997
-0.019063652 -0.015886376 0.60399997
0.21368228 -0.018897071 0.829
-0.040757496 -0.013585832 0.59600002
0.12809925 0.0013484131 0.76899999
0.34324041 0.020340173 0.72500002
-0.19147816 0.081500962 0.56
0.091430828 0.10750657 0.57300001
0.075426966 0.11016307 0.56599998
-0.12331229 0.14032088 0.48500001
-0.56555319 -0.50613713 1.255
-0.56115204 -0.48413116 1.255
0.25827634 -0.52525866 1.655
0.30440119 -0.48106259 1.55
0.017736278 -0.43833947 1.4450001
-0.23891811 -0.31320357 1.145
0.38033316 -0.33529371 1.427
0.46806943 -0.33024898 1.483
0.10944415 -0.26546028 1.3279999
0.32958093 -0.089075923 1.016
0.27438191 -0.082314573 0.97799999
0.46968088 -0.064432755 0.96700001
0.26891986 -0.021804314 0.829
-0.052428547 -0.014679993 0.59799999
0.11685429 0.0053726109 0.76599997
0.13677011 0.011835876 0.75
-0.12356655 0.14146239 0.486
0.33190951 -0.27156234 0.95599997
0.43716991 -0.33746448 1.4579999
0.50962651 -0.12740663 1.038
0.32741541 -0.10477293 1.067
-0.034544975 -0.011514992 0.597
-0.034544975 -0.011514992 0.597
0.32557952 0.0247589 0.70599997
-0.32342276 -0.21972996 0.704
-0.17231983 -0.4412432 1.489
0.41860074 -0.41860074 1.421
0.31377169 -0.32602841 1.398
0.071045063 -0.26126251 1.307
0.32610205 -0.13720147 1.1339999
0.25708574 -0.094897419 0.98400003
0.25708574 -0.094897419 0.98400003
-0.066170439 -0.033610381 0.59899998
-0.038926881 -0.0042083114 0.60000002
-0.04953007 -0.0021076626 0.60100001
-0.15646502 0.054160967 0.57200003
0.32116431 -0.28059617 0.96399999
0.48605996 -0.27985272 1.05
0.51552165 -0.27093109 1.073
0.16648079 -0.24127652 1.376
-0.18264072 -0.16872524 0.99199998
-0.18264072 -0.16872524 0.99199998
-0.43823776 -0.18340348 1.101
-0.11454497 -0.14360863 0.97500002
-0.43401718 -0.14725582 1.105
0.23482378 -0.090450637 0.99199998
-0.29037347 -0.064527445 0.92000002
-0.25928459 -0.063598104 0.93000001
-0.064038225 0.019537086 0.61900002
0.42716116 -0.38947046 1.433
0.13556725 -0.27814659 1.3329999
-0.43838331 -0.22681572 1.087
0.21673855 -0.1391899 1.1339999
0.19744346 -0.12088375 1.149
0.3441557 -0.10068385 1.044
-0.25451869 -0.31019464 1.1339999
0.43441698 -0.26497632 1.028
0.43441698 -0.26497632 1.028
-0.19333684 0.03657724 0.59600002
0.39534631 -0.36031562 1.427
0.45888481 -0.28971067 1.206
0.5117377 -0.34725058 1.489
0.24227774 -0.041141506 0.86900002
-0.17327723 0.085675962 0.54900002
-0.25147465 0.016594775 0.72799999
0.23695424 -0.3135455 1.365
0.78773981 -0.35136595 1.6160001
-0.24352096 -0.14263371 0.99199998
0.1040505 -0.081506222 0.98900002
-0.15774329 0.05325092 0.57300001
-0.041732423 -0.014606347 0.59500003
-0.080126248 0.088711202 0.54400003
