# .PCD v0.7 - Point Cloud Data file format
VERSION 0.7
FIELDS x y z
SIZE 4 4 4
TYPE F F F
COUNT 1 1 1
WIDTH 215
HEIGHT 1
VIEWPOINT 0 0 0 1 0 0 0
POINTS 215
DATA ascii
0.27648956 -0.63761878 1.609
0.28164476 -0.6063984 1.6390001
0.30619675 -0.60380852 1.632
0.33611783 -0.34469226 0.97799999
0.33611783 -0.34469226 0.97799999
0.54644924 -0.41241452 1.47
0.49085745 -0.38603893 1.4579999
0.49085745 -0.38603893 1.4579999
0.85291249 -0.42787305 1.6160001
0.58975273 -0.31971943 1.232
0.15192881 -0.30385762 1.3329999
0.90396285 -0.37908119 1.663
0.16680694 -0.27642295 1.359
-0.027627565 -0.04781694 0.60600001
0.1602262 -0.0082167285 0.78100002
-0.068118535 -0.34910747 1.214
0.22573383 -0.056433458 0.89399999
-0.29505172 -0.03125548 0.713
0.2203577 -0.051209889 0.88499999
-0.0021497458 -0.029021567 0.61299998
-0.0021497458 -0.029021567 0.61299998
-0.029068911 -0.026915658 0.61400002
-0.0053743646 -0.026871823 0.61299998
-0.0053743646 -0.026871823 0.61299998
0.0021707872 -0.021707874 0.61900002
-0.21325268 -0.017527618 0.833
-0.068118535 -0.34910747 1.214
0.18755041 -0.0026792916 0.764
0.15229703 0.069321409 0.59899998
0.020068385 0.094608098 0.54500002
-0.026294932 0.045730319 0.65200001
-0.048953183 0.10697177 0.51700002
0.35569173 0.035928458 0.68300003
0.16177276 0.069784321 0.60299999
0.11225671 0.078579694 0.58200002
0.33564088 0.039000526 0.67400002
0.35569173 0.035928458 0.68300003
0.1625811 0.093056284 0.61000001
0.018123794 0.092526741 0.54400003
-0.018586708 0.1022269 0.52999997
0.020068385 0.094608098 0.54500002
0.2183798 0.079410836 0.62900001
-0.030378748 0.10402419 0.52499998
-0.11843065 0.12015957 0.493
-0.16041031 0.12716465 0.47400001
0.051763985 0.085947745 0.55699998
0.35569173 0.035928458 0.68300003
0.2183798 0.079410836 0.62900001
0.28616518 -0.59808522 1.632
0.29330528 -0.6264773 1.624
0.29330528 -0.6264773 1.624
0.28616518 -0.59808522 1.632
0.29314044 -0.58915484 1.6390001
0.29314044 -0.58915484 1.6390001
0.28616518 -0.59808522 1.632
0.33611783 -0.34469226 0.97799999
0.29168332 -0.57181484 1.647
0.48883745 -0.40736455 1.452
0.37015256 -0.38240924 1.398
0.37015256 -0.38240924 1.398
0.35299316 -0.37260389 1.398
0.87422061 -0.42999125 1.624
0.59383482 -0.29475012 1.2359999
0.56882167 -0.34449762 1.523
0.56882167 -0.34449762 1.523
0.1062283 -0.28866386 1.317
0.76443976 -0.31942663 1.557
0.66643697 -0.26845869 1.3430001
0.56908119 -0.1614694 1.123
-0.26723653 -0.11148518 0.935
0.33805364 -0.14571278 1.108
-0.26993689 -0.10470279 0.93300003
0.18043135 -0.11599158 1.05
0.36877432 -0.11045415 1.016
0.19279151 -0.097248815 0.97299999
0.014132912 -0.055444501 0.62
-0.078590214 -0.060252499 0.74699998
-0.036486059 -0.043997895 0.61199999
0.010836402 -0.042261966 0.61799997
-0.34515166 -0.032049797 0.70300001
0.10731545 -0.045344554 0.86199999
-0.0085849557 -0.026827985 0.61199999
-0.0043345606 -0.019505523 0.61799997
-0.24257234 -0.0085113095 0.80900002
0.1602262 -0.0082167285 0.78100002
0.18132561 -0.0013431527 0.76599997
0.0033140453 0.0033140453 0.63
0.18132561 -0.0013431527 0.76599997
0.36248291 0.0013133439 0.74900001
0.22573383 -0.056433458 0.89399999
0.38897422 -0.40128353 1.404
0.38897422 -0.40128353 1.404
0.31781167 0.018621778 0.708
0.33228827 0.040063124 0.67199999
-0.030378748 0.10402419 0.52499998
-0.10606523 0.064281955 0.611
0.22866912 0.057443451 0.63
0.33564088 0.039000526 0.67400002
0.2183798 0.079410836 0.62900001
-0.065009646 -0.58248639 1.483
-0.33613887 -0.23529722 0.70999998
-0.33613887 -0.23529722 0.70999998
-0.29615289 -0.21573207 0.72799999
-0.29615289 -0.21573207 0.72799999
0.23979309 -0.42497984 1.354
-0.20764861 -0.32368752 1.161
-0.2417675 -0.31832719 1.149
0.11042609 -0.30597231 1.312
0.3448799 -0.32254952 1.415
0.56882167 -0.34716815 1.523
0.56882167 -0.34716815 1.523
-0.28338769 -0.14424689 0.72799999
-0.28338769 -0.14424689 0.72799999
0.21780641 -0.29439768 1.365
0.13723128 -0.20697176 1.283
-0.075021915 -0.14829914 0.995
0.20088024 -0.15988427 1.169
0.45608628 -0.15795195 1.126
0.58690512 -0.15013853 1.112
0.17990531 -0.1325618 1.08
-0.03310363 -0.06620726 0.60900003
0.0010696125 -0.066315971 0.61000001
0.18586709 -0.12267227 1.0599999
-0.037620552 -0.063417502 0.61299998
0.0010713659 -0.063210592 0.611
0.0032140978 -0.056782395 0.611
0.18816413 -0.10214624 1.022
0.017366298 -0.051013503 0.61900002
-0.26679292 -0.051060844 0.72799999
0.50074697 -0.085744344 0.97799999
0.46863756 -0.076479048 0.92799997
0.0064807995 -0.03672453 0.616
0.072551288 -0.051390495 0.86199999
0.23247063 -0.047725759 0.87800002
0.2433193 -0.038341224 0.84100002
0.0065439241 -0.020722426 0.62199998
0.0065439241 -0.020722426 0.62199998
0.24011923 -0.032211117 0.83499998
-0.015170963 -0.018421883 0.61799997
0.1602262 -0.0082167285 0.78100002
0.37066808 0.0077222516 0.73400003
-0.16216026 0.080066629 0.57800001
0.1625811 0.093056284 0.61000001
-0.043766439 0.10668069 0.51999998
0.29168332 -0.54871118 1.647
0.3385376 -0.50780642 1.557
0.053466596 -0.45573908 1.452
-0.20764861 -0.32368752 1.161
0.4136174 -0.35880062 1.421
0.50243384 -0.35481149 1.477
0.14546028 -0.28388217 1.3380001
0.69326317 -0.26353499 1.354
0.35914254 -0.10720673 1.0190001
0.30521479 -0.098847978 0.98900002
0.50074697 -0.085744344 0.97799999
-0.24391373 -0.025754865 0.86400002
0.29935649 -0.035391901 0.84100002
-0.027003331 -0.018362265 0.616
0.14497633 -0.0041031037 0.77999997
-0.068118535 -0.34910747 1.214
0.11225671 0.078579694 0.58200002
0.36355603 -0.29324567 0.97799999
0.47490793 -0.36452395 1.464
0.59227598 -0.16463265 1.145
0.33524635 -0.11408908 1.001
-0.0086831488 -0.016280904 0.61900002
-0.0086831488 -0.016280904 0.61900002
0.35426793 0.01134666 0.71899998
-0.30125898 -0.22211468 0.72799999
-0.13704365 -0.45593372 1.503
0.45099247 -0.44351745 1.421
0.35232335 -0.35232335 1.415
0.10431352 -0.28048745 1.322
0.35917938 -0.1556444 1.138
0.28700683 -0.11132386 0.99199998
0.28700683 -0.11132386 0.99199998
-0.041311592 -0.038050149 0.62
-0.014132912 -0.0097843241 0.62
-0.023955813 -0.0065334034 0.62099999
-0.130633 0.052253202 0.59600002
0.34983692 -0.3018201 0.97799999
0.51671052 -0.30296335 1.0599999
0.54034716 -0.29268807 1.0700001
0.2009872 -0.26152551 1.381
-0.1527582 -0.17762581 1.013
-0.1527582 -0.17762581 1.013
0.13621427 0.071746446 0.59299999
-0.083240397 -0.1526074 0.98900002
-0.39213747 -0.15605471 1.141
0.26679292 -0.105313 1.001
-0.26097843 -0.068153605 0.94800001
-0.07384184 -0.058018588 0.75199997
-0.07384184 -0.058018588 0.75199997
-0.038036123 0.014543223 0.63800001
0.46233913 -0.41208488 1.433
0.17031036 -0.29804313 1.349
-0.40275294 -0.23656847 1.115
0.37344554 -0.11899 1.044
-0.22441347 -0.31943539 1.153
0.46233562 -0.28646678 1.034
0.46233562 -0.28646678 1.034
-0.16715062 0.034732595 0.61900002
0.4314729 -0.38857794 1.439
0.49223214 -0.3097668 1.21
0.54567945 -0.37597054 1.489
0.26788533 -0.055107839 0.87300003
-0.14666492 0.084806241 0.56900001
-0.21932842 0.014446782 0.74900001
0.2702297 -0.33778712 1.376
0.82100475 -0.38652113 1.609
-0.21012275 -0.14832194 1.007
0.13219708 -0.093929514 0.99199998
-0.13272312 0.051208135 0.59600002
-0.017282132 -0.019442398 0.616
-0.05349816 0.086191475 0.565
